8 4
-1.573799e-01 -2.206108e-01 2.358889e-01 2.000000e-01 
-1.556026e-01 -1.596427e-01 1.808731e-01 2.000000e-01 
-1.628269e-01 -1.728418e-01 4.613346e-01 -2.000000e-01 
-1.731006e-01 -8.080724e-02 -3.021263e-01 2.000000e-01 
-1.820022e-01 -8.590306e-02 2.186978e-01 2.000000e-01 
-1.764929e-01 -4.302437e-02 -3.579534e-01 -2.000000e-01 
-1.642430e-01 -7.251703e-02 2.392029e-01 2.000000e-01 
-1.815283e-01 -6.791813e-02 4.752992e-01 2.000000e-01 
-1.919504e-01 -2.543808e-02 -1.000334e-01 -2.000000e-01 
-1.737264e-01 -5.285093e-03 2.917508e-01 -2.000000e-01 
-1.661906e-01 2.896250e-02 -4.724746e-02 2.000000e-01 
-1.739285e-01 6.866767e-02 -4.814846e-01 2.000000e-01 
-1.590257e-01 5.140121e-02 2.419664e-01 -2.000000e-01 
-1.762447e-01 8.226530e-02 3.559061e-01 -2.000000e-01 
-1.906115e-01 1.311997e-01 -2.439289e-01 2.000000e-01 
-1.656671e-01 1.374144e-01 -5.865786e-02 2.000000e-01 
-1.541483e-01 1.320017e-01 4.186091e-01 2.000000e-01 
-1.814687e-01 1.821615e-01 -4.596938e-01 2.000000e-01 
-1.552394e-01 1.718903e-01 -2.461567e-01 2.000000e-01 
-1.912745e-01 1.762014e-01 2.993535e-01 -2.000000e-01 
-1.646552e-01 1.723868e-01 3.809503e-01 2.000000e-01 
-1.774935e-01 2.648891e-01 -1.329399e-01 -2.000000e-01 
-1.580628e-01 2.486114e-01 1.812151e-02 2.000000e-01 
-1.651044e-01 2.564064e-01 6.113549e-02 2.000000e-01 
-1.886967e-01 2.723904e-01 -3.443122e-01 2.000000e-01 
-1.724926e-01 2.720217e-01 -3.335541e-01 -2.000000e-01 
-1.871709e-01 2.753114e-01 -2.816861e-01 -2.000000e-01 
-1.579699e-01 2.902531e-01 4.810801e-01 2.000000e-01 
-1.751511e-01 3.124448e-01 -1.307235e-01 2.000000e-01 
-1.695343e-01 3.274610e-01 -1.414057e-01 -2.000000e-01 
-1.743670e-01 3.234232e-01 2.523662e-01 -2.000000e-01 
-1.825497e-01 3.125611e-01 2.733342e-01 2.000000e-01 
-1.870593e-01 3.373229e-01 3.863950e-01 -2.000000e-01 
-1.817698e-01 3.259898e-01 4.648676e-01 -2.000000e-01 
-1.818695e-01 3.750476e-01 -3.287246e-01 -2.000000e-01 
-1.739724e-01 3.598355e-01 1.481514e-01 -2.000000e-01 
-1.917208e-01 3.498168e-01 1.956263e-01 -2.000000e-01 
-1.795615e-01 4.101520e-01 2.312802e-02 2.000000e-01 
-1.543500e-01 4.153054e-01 4.942401e-02 -2.000000e-01 
-1.804320e-01 4.097365e-01 2.871245e-01 2.000000e-01 
-1.632922e-01 3.991904e-01 3.415537e-01 -2.000000e-01 
-1.757439e-01 3.962467e-01 4.033266e-01 -2.000000e-01 
-1.904188e-01 3.991113e-01 4.290640e-01 2.000000e-01 
-1.810543e-01 3.867841e-01 4.599377e-01 2.000000e-01 
-1.614888e-01 3.988120e-01 4.872808e-01 -2.000000e-01 
-1.712128e-01 4.264442e-01 -1.928785e-01 2.000000e-01 
-1.807041e-01 4.409873e-01 -1.613602e-01 -2.000000e-01 
-1.741610e-01 4.504382e-01 2.514227e-01 -2.000000e-01 
-1.828503e-01 4.435476e-01 4.115677e-01 -2.000000e-01 
-1.912231e-01 4.771336e-01 -5.718541e-02 -2.000000e-01 
-1.906339e-01 4.803496e-01 1.046588e-01 -2.000000e-01 
-1.891127e-01 4.979448e-01 2.659142e-01 2.000000e-01 
-1.647152e-01 4.888752e-01 2.428994e-01 -2.000000e-01 
-1.872435e-01 4.847239e-01 2.856624e-01 2.000000e-01 
-1.583610e-01 4.708639e-01 2.955758e-01 -2.000000e-01 
-1.801150e-01 4.655661e-01 3.090285e-01 2.000000e-01 
-1.881571e-01 4.765135e-01 3.187245e-01 -2.000000e-01 
-1.560818e-01 4.684098e-01 3.744299e-01 2.000000e-01 
-1.819187e-01 4.666621e-01 4.195905e-01 -2.000000e-01 
-1.446656e-01 -4.317426e-01 -2.296344e-01 -2.000000e-01 
-1.366359e-01 -4.314537e-01 2.995012e-01 2.000000e-01 
-1.245822e-01 -3.307089e-01 -3.568976e-01 -2.000000e-01 
-1.424059e-01 -3.141418e-01 5.896460e-02 2.000000e-01 
-1.478314e-01 -3.027727e-01 5.454049e-02 2.000000e-01 
-1.260885e-01 -3.019541e-01 4.724650e-01 2.000000e-01 
-1.399851e-01 -2.429647e-01 -1.990294e-02 -2.000000e-01 
-1.533592e-01 -2.114680e-01 -1.432053e-01 2.000000e-01 
-1.375482e-01 -2.105919e-01 3.965232e-02 2.000000e-01 
-1.220942e-01 -2.304566e-01 1.483855e-01 -2.000000e-01 
-1.531341e-01 -2.033079e-01 2.789806e-01 2.000000e-01 
-1.382125e-01 -2.177692e-01 2.956714e-01 2.000000e-01 
-1.456397e-01 -2.123080e-01 4.079264e-01 2.000000e-01 
-1.285049e-01 -2.297636e-01 4.117349e-01 -2.000000e-01 
-1.227121e-01 -1.604381e-01 4.438097e-01 2.000000e-01 
-1.520206e-01 -1.312354e-01 6.613509e-02 2.000000e-01 
-1.274324e-01 -1.524377e-01 2.544016e-01 2.000000e-01 
-1.377692e-01 -9.908303e-02 9.261950e-02 -2.000000e-01 
-1.391302e-01 -6.221070e-02 1.212550e-01 2.000000e-01 
-1.410254e-01 -4.297106e-02 2.635610e-01 -2.000000e-01 
-1.159549e-01 -1.660973e-03 1.704054e-01 2.000000e-01 
-1.269587e-01 -7.785701e-03 4.695052e-01 2.000000e-01 
-1.252413e-01 1.949160e-03 -2.265621e-01 -2.000000e-01 
-1.304027e-01 2.397095e-02 -6.149137e-02 -2.000000e-01 
-1.229564e-01 8.702113e-03 2.683689e-01 2.000000e-01 
-1.265881e-01 2.696857e-02 4.136399e-01 -2.000000e-01 
-1.269412e-01 5.536591e-02 -2.768258e-01 -2.000000e-01 
-1.282232e-01 7.181296e-02 -3.380385e-02 -2.000000e-01 
-1.202326e-01 1.023488e-01 -2.418574e-01 -2.000000e-01 
-1.319452e-01 1.152635e-01 -1.145952e-01 2.000000e-01 
-1.273143e-01 9.341446e-02 -6.820671e-02 2.000000e-01 
-1.370200e-01 8.164171e-02 5.592504e-02 2.000000e-01 
-1.423574e-01 1.291964e-01 -4.724257e-01 -2.000000e-01 
-1.486388e-01 1.456940e-01 -4.996161e-01 -2.000000e-01 
-1.500223e-01 1.234847e-01 -3.766080e-01 -2.000000e-01 
-1.239977e-01 1.352146e-01 5.455753e-02 2.000000e-01 
-1.349708e-01 1.380807e-01 4.411031e-01 2.000000e-01 
-1.173299e-01 1.537770e-01 4.883563e-01 2.000000e-01 
-1.447594e-01 1.680879e-01 -4.918823e-01 -2.000000e-01 
-1.476865e-01 1.597909e-01 2.509835e-01 2.000000e-01 
-1.311982e-01 2.111169e-01 -3.900567e-01 -2.000000e-01 
-1.326405e-01 1.981093e-01 -2.465033e-01 -2.000000e-01 
-1.482969e-01 2.194650e-01 -1.611433e-01 -2.000000e-01 
-1.353081e-01 2.051587e-01 -4.447978e-02 2.000000e-01 
-1.423731e-01 2.222855e-01 3.341454e-01 -2.000000e-01 
-1.508667e-01 2.765285e-01 3.021441e-01 -2.000000e-01 
-1.243677e-01 3.290218e-01 -2.194567e-01 2.000000e-01 
-1.480795e-01 3.110567e-01 1.994040e-01 2.000000e-01 
-1.275806e-01 3.661833e-01 -3.250320e-01 -2.000000e-01 
-1.376697e-01 3.695477e-01 1.778702e-01 -2.000000e-01 
-1.529936e-01 3.593298e-01 2.650760e-01 2.000000e-01 
-1.527537e-01 3.680448e-01 2.901498e-01 2.000000e-01 
-1.177109e-01 3.616559e-01 3.784920e-01 -2.000000e-01 
-1.234858e-01 3.580818e-01 4.125084e-01 2.000000e-01 
-1.374785e-01 3.987571e-01 -4.711293e-01 -2.000000e-01 
-1.206259e-01 3.916609e-01 -3.173554e-01 2.000000e-01 
-1.171168e-01 3.909047e-01 -1.347862e-01 -2.000000e-01 
-1.294084e-01 3.919332e-01 2.207898e-01 2.000000e-01 
-1.323933e-01 4.551744e-01 -6.497543e-02 -2.000000e-01 
-1.326616e-01 4.423715e-01 4.217299e-02 -2.000000e-01 
-1.282223e-01 4.696714e-01 -2.183949e-01 2.000000e-01 
-1.328678e-01 4.935304e-01 -1.358578e-01 -2.000000e-01 
-1.309977e-01 4.821306e-01 5.971410e-02 -2.000000e-01 
-1.048367e-01 -4.854698e-01 -2.914912e-01 -2.000000e-01 
-9.405302e-02 -4.867776e-01 -2.294869e-02 -2.000000e-01 
-8.247682e-02 -4.378861e-01 -4.503543e-01 -2.000000e-01 
-9.404196e-02 -4.501020e-01 1.734442e-01 -2.000000e-01 
-9.028045e-02 -4.110227e-01 -2.452279e-01 -2.000000e-01 
-1.092719e-01 -4.065372e-01 7.865216e-03 -2.000000e-01 
-9.537121e-02 -4.069402e-01 1.758756e-01 2.000000e-01 
-9.146160e-02 -3.645518e-01 -4.043730e-01 -2.000000e-01 
-1.042312e-01 -3.724225e-01 -4.260068e-02 -2.000000e-01 
-1.093995e-01 -3.723760e-01 2.708121e-01 -2.000000e-01 
-1.022315e-01 -3.112230e-01 1.200195e-01 2.000000e-01 
-8.349800e-02 -3.309980e-01 3.084626e-01 -2.000000e-01 
-8.733197e-02 -3.002309e-01 -3.061187e-01 -2.000000e-01 
-8.496883e-02 -2.896722e-01 3.450390e-01 2.000000e-01 
-8.815154e-02 -2.654144e-01 -2.024132e-01 2.000000e-01 
-7.775241e-02 -2.304625e-01 3.287713e-01 -2.000000e-01 
-1.136228e-01 -1.683629e-01 -2.891637e-01 2.000000e-01 
-1.036548e-01 -1.893292e-01 5.733857e-02 -2.000000e-01 
-1.049558e-01 -1.903069e-01 4.312157e-01 -2.000000e-01 
-1.148424e-01 -1.228750e-01 -4.419024e-01 2.000000e-01 
-8.325874e-02 -1.479651e-01 3.475999e-01 2.000000e-01 
-7.943614e-02 -8.842272e-02 -3.549204e-01 2.000000e-01 
-8.129423e-02 -1.145300e-01 -2.598154e-01 2.000000e-01 
-9.370089e-02 -6.322701e-02 -1.437336e-01 2.000000e-01 
-8.807421e-02 -6.376160e-02 -1.219142e-01 2.000000e-01 
-1.080451e-01 -5.361277e-02 7.242867e-03 2.000000e-01 
-7.814515e-02 -6.464061e-02 3.276449e-01 -2.000000e-01 
-8.587474e-02 -1.221329e-02 1.535702e-01 2.000000e-01 
-1.060739e-01 -1.514743e-02 2.156271e-01 2.000000e-01 
-8.141141e-02 -1.187850e-02 2.023089e-01 2.000000e-01 
-8.969578e-02 -1.929454e-02 3.261681e-01 -2.000000e-01 
-9.973506e-02 2.472046e-02 -4.413169e-01 2.000000e-01 
-8.095345e-02 3.100474e-02 -1.405348e-01 2.000000e-01 
-9.454019e-02 1.300116e-02 6.302283e-02 2.000000e-01 
-9.933775e-02 1.807586e-02 4.099911e-01 2.000000e-01 
-1.021232e-01 6.335446e-02 -3.683756e-01 2.000000e-01 
-1.067679e-01 4.542060e-02 -2.774903e-01 -2.000000e-01 
-8.975308e-02 6.329561e-02 -2.202759e-02 2.000000e-01 
-7.805863e-02 1.105129e-01 -4.468225e-01 2.000000e-01 
-1.052959e-01 1.129488e-01 -1.521694e-01 -2.000000e-01 
-9.015293e-02 1.266548e-01 -3.072430e-01 2.000000e-01 
-9.647974e-02 1.401908e-01 -2.785520e-01 -2.000000e-01 
-1.020992e-01 1.199801e-01 -1.433104e-01 2.000000e-01 
-8.158620e-02 1.516314e-01 2.034728e-01 -2.000000e-01 
-8.238308e-02 1.240063e-01 2.592833e-01 2.000000e-01 
-1.035810e-01 1.450226e-01 3.944043e-01 2.000000e-01 
-1.012871e-01 1.578926e-01 -2.831604e-01 -2.000000e-01 
-7.761891e-02 1.843136e-01 5.099810e-02 2.000000e-01 
-9.937078e-02 2.050377e-01 -3.563247e-01 2.000000e-01 
-8.864316e-02 1.955334e-01 2.212263e-01 -2.000000e-01 
-1.143502e-01 2.003480e-01 2.485526e-01 2.000000e-01 
-9.895764e-02 2.401115e-01 -2.986448e-01 2.000000e-01 
-1.067029e-01 2.339601e-01 -3.552726e-02 -2.000000e-01 
-1.109583e-01 2.311348e-01 1.525079e-01 -2.000000e-01 
-9.908663e-02 2.538020e-01 4.176914e-01 2.000000e-01 
-9.987457e-02 2.728582e-01 -4.807204e-01 -2.000000e-01 
-8.618156e-02 2.761507e-01 -4.481362e-01 -2.000000e-01 
-1.121919e-01 2.810217e-01 -2.934622e-01 2.000000e-01 
-8.474989e-02 3.211776e-01 -1.905450e-01 -2.000000e-01 
-7.976800e-02 3.439407e-01 -1.044343e-02 -2.000000e-01 
-8.109079e-02 3.414619e-01 3.110222e-01 2.000000e-01 
-1.105044e-01 3.587152e-01 2.926136e-01 -2.000000e-01 
-9.535148e-02 4.009777e-01 -4.014911e-02 2.000000e-01 
-9.917011e-02 4.243329e-01 -4.278822e-01 -2.000000e-01 
-9.622812e-02 4.478030e-01 2.317899e-02 -2.000000e-01 
-1.013054e-01 4.532795e-01 9.660547e-02 2.000000e-01 
-9.718245e-02 4.594410e-01 4.701083e-01 -2.000000e-01 
-1.091749e-01 4.740413e-01 -1.999916e-01 -2.000000e-01 
-9.335952e-02 4.980425e-01 -4.680182e-03 -2.000000e-01 
-8.397100e-02 4.925202e-01 5.566745e-03 2.000000e-01 
-1.005814e-01 4.936615e-01 2.589777e-02 -2.000000e-01 
-1.003046e-01 4.997731e-01 6.629857e-02 -2.000000e-01 
-9.359831e-02 4.647554e-01 6.967304e-02 -2.000000e-01 
-1.114595e-01 4.815209e-01 4.077565e-01 -2.000000e-01 
-4.954009e-02 -4.765214e-01 -4.973346e-01 2.000000e-01 
-4.290098e-02 -4.906365e-01 -3.179252e-01 2.000000e-01 
-7.434917e-02 -4.932787e-01 -2.048121e-01 -2.000000e-01 
-6.133316e-02 -4.976966e-01 3.751238e-02 2.000000e-01 
-5.543931e-02 -4.922334e-01 6.578032e-02 -2.000000e-01 
-4.117697e-02 -4.951939e-01 8.371370e-02 2.000000e-01 
-7.272296e-02 -4.659315e-01 1.573792e-01 2.000000e-01 
-7.053991e-02 -4.523695e-01 -2.705224e-01 -2.000000e-01 
-4.146594e-02 -4.365447e-01 3.054329e-01 2.000000e-01 
-7.668602e-02 -3.987392e-01 -4.389524e-01 2.000000e-01 
-4.589444e-02 -3.478931e-01 -2.042470e-01 -2.000000e-01 
-6.634493e-02 -3.768744e-01 -6.750382e-02 -2.000000e-01 
-6.523609e-02 -3.669214e-01 5.553867e-02 2.000000e-01 
-5.750515e-02 -3.578784e-01 4.992445e-01 -2.000000e-01 
-4.485579e-02 -3.115023e-01 2.970165e-01 2.000000e-01 
-4.082391e-02 -3.402745e-01 3.770933e-01 2.000000e-01 
-6.446876e-02 -3.055134e-01 -4.319206e-01 -2.000000e-01 
-4.014352e-02 -2.864067e-01 8.966887e-02 2.000000e-01 
-7.192296e-02 -2.582287e-01 -3.677512e-01 -2.000000e-01 
-5.523079e-02 -2.639514e-01 -7.112245e-02 2.000000e-01 
-6.256806e-02 -2.661494e-01 2.293025e-01 2.000000e-01 
-7.190495e-02 -2.095246e-01 -4.842433e-01 -2.000000e-01 
-5.858255e-02 -1.969677e-01 -2.216397e-01 -2.000000e-01 
-5.806801e-02 -2.116850e-01 4.332647e-01 2.000000e-01 
-4.506711e-02 -1.704841e-01 -2.749189e-01 2.000000e-01 
-4.959717e-02 -1.610453e-01 2.320939e-01 2.000000e-01 
-4.661142e-02 -1.859977e-01 3.630325e-01 2.000000e-01 
-5.127991e-02 -1.919605e-01 3.635342e-01 -2.000000e-01 
-6.589139e-02 -1.888481e-01 4.744036e-01 2.000000e-01 
-6.880399e-02 -1.496141e-01 -2.345916e-01 2.000000e-01 
-4.660691e-02 -1.482785e-01 -1.117292e-01 2.000000e-01 
-5.478347e-02 -1.457425e-01 -2.874531e-02 -2.000000e-01 
-3.910744e-02 -1.426209e-01 1.542687e-02 -2.000000e-01 
-4.584685e-02 -1.273482e-01 1.911925e-01 2.000000e-01 
-5.623903e-02 -1.456936e-01 1.699261e-01 -2.000000e-01 
-6.180752e-02 -9.756517e-02 -2.643984e-01 -2.000000e-01 
-5.855136e-02 -1.022797e-01 -1.824753e-01 2.000000e-01 
-4.340473e-02 -1.019427e-01 -1.649014e-01 -2.000000e-01 
-4.437431e-02 -5.031265e-02 -4.503200e-01 2.000000e-01 
-4.196252e-02 -5.829094e-02 -3.453314e-01 -2.000000e-01 
-6.593351e-02 -4.480459e-02 -2.113767e-01 -2.000000e-01 
-7.436049e-02 -4.765583e-02 8.513186e-02 -2.000000e-01 
-7.624182e-02 -7.524139e-02 2.666540e-01 -2.000000e-01 
-5.928686e-02 -9.118367e-04 -4.693489e-01 2.000000e-01 
-6.532663e-02 -8.323905e-03 -2.807671e-01 2.000000e-01 
-7.516339e-02 -2.715370e-02 -5.275706e-03 -2.000000e-01 
-3.998754e-02 -8.742362e-03 2.177783e-01 -2.000000e-01 
-6.678510e-02 1.983296e-02 -4.301617e-01 -2.000000e-01 
-4.348116e-02 2.728587e-02 -2.986239e-01 -2.000000e-01 
-6.161650e-02 2.956130e-02 3.320429e-01 -2.000000e-01 
-5.881399e-02 9.385981e-03 4.512815e-01 -2.000000e-01 
-5.210894e-02 4.560042e-02 -4.799524e-01 2.000000e-01 
-5.531239e-02 5.395954e-02 -1.424520e-01 -2.000000e-01 
-5.700872e-02 5.455267e-02 -9.210030e-03 2.000000e-01 
-5.998634e-02 1.124703e-01 -2.405454e-01 2.000000e-01 
-4.410052e-02 1.152875e-01 4.016771e-01 2.000000e-01 
-7.084477e-02 1.311978e-01 -4.529054e-02 -2.000000e-01 
-6.440528e-02 1.858559e-01 -4.411121e-01 2.000000e-01 
-5.316586e-02 1.806420e-01 -3.680932e-01 -2.000000e-01 
-4.707361e-02 1.764762e-01 -7.074712e-02 2.000000e-01 
-6.531471e-02 1.918058e-01 1.130121e-01 2.000000e-01 
-7.507667e-02 1.714012e-01 4.165806e-01 2.000000e-01 
-5.264344e-02 1.926232e-01 -9.211206e-02 -2.000000e-01 
-6.517216e-02 2.258822e-01 5.033229e-02 2.000000e-01 
-7.217018e-02 2.045320e-01 1.097462e-01 2.000000e-01 
-6.715613e-02 2.241850e-01 2.139917e-01 2.000000e-01 
-7.020972e-02 2.424749e-01 -3.189141e-02 2.000000e-01 
-6.413652e-02 2.574930e-01 1.012520e-01 -2.000000e-01 
-5.805079e-02 2.495691e-01 1.302872e-01 -2.000000e-01 
-6.060906e-02 2.578968e-01 4.573678e-01 2.000000e-01 
-4.973600e-02 2.762823e-01 -3.852019e-01 2.000000e-01 
-6.779507e-02 2.880321e-01 -2.884347e-01 2.000000e-01 
-6.926609e-02 2.872153e-01 1.202958e-01 2.000000e-01 
-6.785303e-02 2.694789e-01 2.250972e-01 2.000000e-01 
-6.831094e-02 3.314091e-01 -4.911535e-02 -2.000000e-01 
-7.395034e-02 3.790000e-01 -1.778992e-01 2.000000e-01 
-6.163283e-02 3.748651e-01 4.545731e-02 -2.000000e-01 
-7.037424e-02 3.829369e-01 1.871048e-01 2.000000e-01 
-4.761317e-02 3.624987e-01 4.138590e-01 2.000000e-01 
-6.131457e-02 3.928798e-01 -8.726345e-02 -2.000000e-01 
-4.097875e-02 3.979376e-01 -2.681907e-02 -2.000000e-01 
-5.157760e-02 4.087079e-01 1.917031e-01 2.000000e-01 
-4.736448e-02 4.133624e-01 1.942544e-01 -2.000000e-01 
-6.649543e-02 4.051595e-01 2.468016e-01 -2.000000e-01 
-4.079971e-02 3.867719e-01 3.570322e-01 -2.000000e-01 
-6.692627e-02 3.968476e-01 3.879203e-01 -2.000000e-01 
-7.332385e-02 4.383412e-01 -3.377631e-01 2.000000e-01 
-7.274971e-02 4.461865e-01 2.884317e-01 2.000000e-01 
-5.579724e-02 4.475603e-01 3.851760e-01 -2.000000e-01 
-7.047386e-02 4.979837e-01 -3.874745e-01 2.000000e-01 
-3.978323e-02 4.999502e-01 -3.165779e-02 2.000000e-01 
-7.571702e-03 -4.646174e-01 9.602946e-02 2.000000e-01 
-1.434453e-02 -4.896420e-01 3.279944e-01 2.000000e-01 
-2.533886e-02 -4.565828e-01 1.070921e-01 2.000000e-01 
-4.670597e-03 -4.487344e-01 1.602233e-01 2.000000e-01 
-3.044918e-02 -3.853532e-01 -3.228535e-01 -2.000000e-01 
-2.943109e-02 -4.165005e-01 -2.063772e-01 2.000000e-01 
-2.700166e-02 -4.131012e-01 2.417429e-01 -2.000000e-01 
-1.383180e-02 -3.944905e-01 2.844937e-01 -2.000000e-01 
-2.344349e-03 -3.624216e-01 -2.331834e-01 -2.000000e-01 
-2.910609e-02 -3.549639e-01 3.087626e-01 2.000000e-01 
-1.301226e-03 -3.240098e-01 -4.393975e-01 -2.000000e-01 
-3.083032e-02 -3.280364e-01 -2.316055e-01 2.000000e-01 
-1.058197e-02 -3.197515e-01 -7.718591e-02 -2.000000e-01 
-3.366724e-02 -3.259969e-01 3.127567e-02 2.000000e-01 
-3.674354e-02 -3.412634e-01 3.767207e-02 2.000000e-01 
-2.130128e-02 -3.161517e-01 4.378946e-01 -2.000000e-01 
-2.929802e-02 -2.744214e-01 -4.991255e-01 -2.000000e-01 
-8.810752e-04 -2.875987e-01 -1.484757e-01 -2.000000e-01 
-1.417698e-02 -3.034747e-01 2.821603e-01 2.000000e-01 
-2.213485e-02 -2.515037e-01 -4.849816e-01 2.000000e-01 
-7.766712e-03 -2.353796e-01 -2.996698e-01 -2.000000e-01 
-5.984952e-03 -2.648182e-01 -7.762939e-02 -2.000000e-01 
-2.474975e-02 -2.132950e-01 -4.744664e-01 -2.000000e-01 
-6.290762e-03 -1.931918e-01 -4.167814e-01 2.000000e-01 
-3.415363e-02 -2.279999e-01 -1.782858e-01 -2.000000e-01 
-5.914208e-03 -1.848927e-01 1.108163e-01 2.000000e-01 
-4.940224e-05 -1.161838e-01 -1.466199e-01 -2.000000e-01 
-1.873318e-02 -1.225053e-01 8.210084e-02 2.000000e-01 
-3.428563e-02 -1.263599e-01 1.149940e-01 2.000000e-01 
-1.284746e-02 -1.036684e-01 -4.832392e-01 -2.000000e-01 
-1.586918e-02 -9.751815e-02 -3.489195e-01 2.000000e-01 
-1.804904e-02 -1.014299e-01 -3.111271e-01 -2.000000e-01 
-7.694914e-03 -1.121538e-01 -2.705201e-01 2.000000e-01 
-1.347433e-02 -6.307933e-02 -5.969198e-02 2.000000e-01 
-2.864359e-02 -6.359909e-02 3.476470e-01 2.000000e-01 
-3.780458e-02 -3.944001e-02 4.060343e-01 2.000000e-01 
-2.205226e-02 -6.256854e-02 4.525974e-01 2.000000e-01 
-2.492159e-02 -2.929318e-02 -2.286819e-01 2.000000e-01 
-4.502084e-03 -1.625763e-02 -1.870482e-01 -2.000000e-01 
-3.477525e-02 -1.298833e-02 1.577087e-01 -2.000000e-01 
-2.670821e-02 -1.584948e-02 3.373959e-01 -2.000000e-01 
-1.362909e-02 2.246083e-02 -4.097257e-01 -2.000000e-01 
-1.679467e-02 1.775599e-02 -3.465197e-01 2.000000e-01 
-2.456824e-02 1.464750e-02 -2.737180e-01 2.000000e-01 
-2.626266e-02 2.158714e-02 1.493130e-01 2.000000e-01 
-3.279127e-02 3.811985e-02 3.907650e-01 -2.000000e-01 
-5.880703e-03 4.648394e-02 3.208709e-01 2.000000e-01 
-8.020282e-04 8.671563e-02 -3.194843e-01 2.000000e-01 
-3.077923e-02 1.148899e-01 -1.480270e-02 2.000000e-01 
-1.332094e-02 1.039466e-01 1.944784e-01 -2.000000e-01 
-2.530491e-02 1.460028e-01 -1.824404e-01 -2.000000e-01 
-2.420671e-02 1.672615e-01 -4.666535e-01 -2.000000e-01 
-1.754636e-02 1.566485e-01 -2.748135e-01 -2.000000e-01 
-3.749024e-02 1.799699e-01 2.800907e-01 -2.000000e-01 
-3.768773e-02 2.296756e-01 -4.982385e-01 2.000000e-01 
-1.446157e-02 2.251756e-01 -4.088265e-01 -2.000000e-01 
-1.697082e-02 2.207472e-01 -3.143051e-01 -2.000000e-01 
-1.076290e-02 2.666024e-01 -4.676629e-01 2.000000e-01 
-3.010066e-02 2.688355e-01 -3.830575e-01 2.000000e-01 
-3.772610e-02 2.310276e-01 -9.132635e-02 2.000000e-01 
-1.206262e-02 2.680634e-01 4.044158e-02 2.000000e-01 
-2.162413e-02 2.585186e-01 6.512591e-02 -2.000000e-01 
-3.741687e-02 2.893562e-01 -4.627661e-01 2.000000e-01 
-1.537447e-02 3.224431e-01 -1.282670e-01 2.000000e-01 
-3.063923e-02 3.839364e-01 -2.186611e-01 2.000000e-01 
-1.258497e-02 3.510393e-01 -1.651293e-01 2.000000e-01 
-2.091377e-02 3.498035e-01 3.796968e-01 2.000000e-01 
-2.459352e-02 3.687114e-01 3.839728e-01 -2.000000e-01 
-3.662580e-02 3.855107e-01 -1.237724e-01 2.000000e-01 
-2.369358e-02 3.860341e-01 6.314557e-02 -2.000000e-01 
-1.699290e-02 4.187006e-01 4.609124e-01 2.000000e-01 
-2.464566e-02 4.416784e-01 4.465018e-01 -2.000000e-01 
-2.993888e-02 4.232836e-01 4.945400e-01 2.000000e-01 
-1.247483e-02 4.702944e-01 -1.642048e-01 -2.000000e-01 
-5.849665e-03 4.696804e-01 -1.446152e-01 -2.000000e-01 
-1.474443e-02 4.752216e-01 1.159698e-01 -2.000000e-01 
-2.369707e-02 4.735925e-01 2.971264e-01 -2.000000e-01 
-6.907678e-03 4.943287e-01 4.062922e-01 2.000000e-01 
7.842463e-03 -4.306875e-01 -4.965250e-01 -2.000000e-01 
3.829434e-02 -4.522461e-01 -2.785829e-01 -2.000000e-01 
1.657158e-02 -4.388806e-01 2.007413e-02 2.000000e-01 
2.709964e-02 -4.553629e-01 9.569418e-02 -2.000000e-01 
1.946023e-02 -4.050688e-01 1.890177e-01 -2.000000e-01 
4.077857e-03 -3.981304e-01 2.396399e-01 2.000000e-01 
3.089612e-02 -3.678076e-01 -3.974343e-01 -2.000000e-01 
2.974511e-02 -3.595079e-01 -3.392167e-01 2.000000e-01 
1.341585e-02 -3.765076e-01 -2.741576e-01 -2.000000e-01 
2.582766e-02 -3.804293e-01 3.714994e-02 -2.000000e-01 
1.193146e-02 -3.394577e-01 -4.883761e-01 -2.000000e-01 
2.303627e-02 -3.121698e-01 -4.240248e-01 2.000000e-01 
2.805593e-02 -3.158551e-01 -3.683690e-01 -2.000000e-01 
4.865563e-03 -3.332014e-01 -1.487457e-01 2.000000e-01 
3.246850e-02 -3.385160e-01 6.737968e-03 2.000000e-01 
2.258957e-02 -3.198490e-01 4.410302e-01 -2.000000e-01 
3.179313e-03 -2.773603e-01 -4.838467e-01 2.000000e-01 
1.102948e-02 -2.937337e-01 -4.330246e-01 2.000000e-01 
1.937853e-02 -2.898402e-01 -1.157828e-01 2.000000e-01 
3.732976e-03 -2.734326e-01 3.029494e-01 -2.000000e-01 
3.596170e-02 -2.281327e-01 -2.069610e-01 -2.000000e-01 
1.804979e-02 -2.079580e-01 4.696147e-01 2.000000e-01 
1.068951e-03 -1.887630e-01 -4.323600e-01 -2.000000e-01 
2.022784e-02 -1.654711e-01 9.065404e-02 2.000000e-01 
4.516456e-03 -1.714526e-01 2.386026e-01 2.000000e-01 
2.652073e-02 -1.185673e-01 -4.249450e-01 2.000000e-01 
1.020869e-03 -1.469679e-01 -1.984233e-01 -2.000000e-01 
2.798863e-02 -1.202110e-01 2.657984e-01 -2.000000e-01 
3.051505e-03 -1.273382e-01 3.989720e-01 2.000000e-01 
3.416447e-02 -9.322792e-02 1.567076e-01 2.000000e-01 
1.453370e-03 -1.037873e-01 3.548667e-01 2.000000e-01 
2.174777e-02 -1.024330e-01 4.410006e-01 -2.000000e-01 
3.716745e-02 -4.415939e-02 -4.887938e-01 -2.000000e-01 
3.047363e-02 -4.797359e-02 -1.689906e-01 -2.000000e-01 
2.552511e-02 -4.084597e-02 5.330609e-04 -2.000000e-01 
3.235006e-02 -4.395287e-02 4.336777e-02 2.000000e-01 
1.885861e-02 -5.401211e-02 1.169461e-01 2.000000e-01 
8.565249e-03 -4.573199e-02 2.190837e-01 2.000000e-01 
3.217262e-02 -1.720605e-02 -4.516664e-01 -2.000000e-01 
1.017286e-02 -1.481880e-02 -9.292128e-02 -2.000000e-01 
3.177786e-02 -8.622410e-03 8.316274e-02 -2.000000e-01 
3.070805e-03 -2.775595e-02 4.614507e-01 -2.000000e-01 
2.032299e-02 2.390375e-02 4.268856e-01 2.000000e-01 
1.224417e-02 5.452235e-02 -1.976106e-01 2.000000e-01 
1.969163e-02 4.849735e-02 2.338914e-01 -2.000000e-01 
2.629093e-02 1.042660e-01 9.294014e-02 2.000000e-01 
2.391515e-02 1.025345e-01 4.144929e-01 -2.000000e-01 
3.485590e-02 1.527165e-01 -4.746200e-01 2.000000e-01 
2.211823e-02 1.158696e-01 -4.894334e-01 -2.000000e-01 
1.908343e-02 1.467286e-01 -7.720463e-02 -2.000000e-01 
2.147466e-02 1.159509e-01 3.013828e-01 -2.000000e-01 
2.404638e-02 1.165913e-01 3.692669e-01 2.000000e-01 
3.592502e-02 1.713264e-01 -4.341161e-01 2.000000e-01 
6.816311e-03 1.671298e-01 -2.136215e-01 2.000000e-01 
1.621509e-03 1.564102e-01 -1.117187e-01 2.000000e-01 
3.072332e-02 1.755476e-01 2.327658e-01 -2.000000e-01 
3.629229e-02 2.152333e-01 -3.831715e-01 -2.000000e-01 
1.462641e-02 2.303248e-01 4.406452e-01 -2.000000e-01 
3.491848e-02 2.571887e-01 -1.219441e-01 2.000000e-01 
1.345888e-02 2.365308e-01 1.730627e-01 -2.000000e-01 
1.855309e-02 2.542937e-01 3.326388e-01 -2.000000e-01 
3.638486e-02 2.510471e-01 3.608735e-01 2.000000e-01 
2.889873e-02 2.441781e-01 3.796303e-01 -2.000000e-01 
2.878572e-02 2.962321e-01 -2.968825e-01 -2.000000e-01 
7.371299e-04 2.693762e-01 1.889027e-01 2.000000e-01 
2.104731e-02 2.874699e-01 3.439174e-01 2.000000e-01 
2.701013e-02 3.012906e-01 3.341505e-01 -2.000000e-01 
6.613487e-04 3.086986e-01 -4.291079e-01 2.000000e-01 
1.695620e-02 3.378634e-01 -3.064357e-01 2.000000e-01 
8.129663e-03 3.310233e-01 -2.155264e-01 -2.000000e-01 
2.909947e-02 3.225513e-01 3.301664e-01 -2.000000e-01 
3.529058e-02 3.420821e-01 4.688856e-01 2.000000e-01 
3.167987e-02 3.672003e-01 -3.895861e-01 -2.000000e-01 
7.273996e-03 4.265427e-01 -3.607955e-01 2.000000e-01 
5.252344e-03 4.553554e-01 1.342853e-01 -2.000000e-01 
1.419000e-02 4.436278e-01 4.913734e-01 -2.000000e-01 
1.952646e-02 4.794841e-01 -3.647606e-01 -2.000000e-01 
1.017935e-02 4.990976e-01 -2.721109e-01 -2.000000e-01 
8.398915e-03 4.951222e-01 -9.830707e-02 -2.000000e-01 
3.739603e-02 4.748421e-01 2.660393e-01 2.000000e-01 
9.529628e-03 4.872526e-01 4.216303e-01 2.000000e-01 
6.711350e-02 -4.846449e-01 -3.175406e-01 -2.000000e-01 
6.063234e-02 -4.809365e-01 1.220639e-01 -2.000000e-01 
7.338340e-02 -4.391685e-01 -4.923182e-02 2.000000e-01 
4.603629e-02 -4.269314e-01 4.805130e-02 2.000000e-01 
7.075648e-02 -4.413274e-01 3.968581e-01 2.000000e-01 
4.786110e-02 -4.358569e-01 4.176878e-01 -2.000000e-01 
7.678231e-02 -4.295554e-01 4.802012e-01 2.000000e-01 
7.560953e-02 -3.916892e-01 -2.514129e-01 -2.000000e-01 
4.173470e-02 -4.089894e-01 -1.058059e-01 -2.000000e-01 
4.707708e-02 -4.081992e-01 -6.511621e-02 2.000000e-01 
5.450230e-02 -3.492935e-01 4.275632e-01 2.000000e-01 
6.462776e-02 -3.113044e-01 -4.518589e-01 2.000000e-01 
6.272571e-02 -3.143422e-01 8.555213e-02 -2.000000e-01 
6.926740e-02 -2.920329e-01 -1.954989e-01 2.000000e-01 
6.764207e-02 -2.711006e-01 -7.952278e-02 -2.000000e-01 
7.021301e-02 -2.565390e-01 -3.152166e-01 -2.000000e-01 
4.186941e-02 -2.351966e-01 2.579258e-01 -2.000000e-01 
7.149180e-02 -2.651543e-01 2.794462e-01 2.000000e-01 
4.192591e-02 -2.431477e-01 4.030482e-01 -2.000000e-01 
5.382047e-02 -2.218945e-01 -2.477796e-01 -2.000000e-01 
3.916189e-02 -1.959714e-01 -1.907395e-02 -2.000000e-01 
5.156376e-02 -2.048441e-01 -1.961984e-02 -2.000000e-01 
6.049887e-02 -2.253749e-01 1.033609e-01 2.000000e-01 
5.009173e-02 -2.135607e-01 2.635511e-01 2.000000e-01 
7.044500e-02 -1.647517e-01 -2.036600e-01 2.000000e-01 
5.470882e-02 -1.431027e-01 1.810696e-01 2.000000e-01 
6.663457e-02 -1.106392e-01 -3.103578e-01 -2.000000e-01 
3.883345e-02 -8.934605e-02 -6.349322e-02 2.000000e-01 
7.150504e-02 -8.442990e-02 1.130708e-01 -2.000000e-01 
7.573608e-02 -8.444132e-02 2.125576e-01 -2.000000e-01 
4.206354e-02 -8.869106e-02 4.999188e-01 2.000000e-01 
6.380421e-02 -5.233071e-02 -3.501703e-01 -2.000000e-01 
7.471824e-02 -7.074260e-02 -2.105093e-01 -2.000000e-01 
7.439648e-02 -7.260446e-02 1.800251e-03 -2.000000e-01 
5.067688e-02 -6.157847e-02 8.478506e-02 -2.000000e-01 
4.750409e-02 -4.850468e-02 3.578843e-01 -2.000000e-01 
4.528619e-02 -2.007185e-02 -3.475584e-01 -2.000000e-01 
5.422189e-02 -2.463070e-02 -3.213839e-01 -2.000000e-01 
4.069530e-02 -2.892573e-02 -1.398131e-01 -2.000000e-01 
6.413363e-02 -7.246165e-03 1.501543e-01 2.000000e-01 
4.479248e-02 -2.467952e-02 2.084120e-01 2.000000e-01 
4.371184e-02 2.512191e-02 -3.834841e-01 -2.000000e-01 
5.143602e-02 8.285085e-03 -3.258984e-01 -2.000000e-01 
5.959570e-02 3.575227e-02 -1.693543e-01 2.000000e-01 
4.911655e-02 3.368766e-02 1.862285e-01 -2.000000e-01 
6.696132e-02 9.899136e-03 4.077700e-01 -2.000000e-01 
3.992541e-02 6.671252e-02 -4.093468e-01 2.000000e-01 
6.733330e-02 6.923577e-02 -3.544791e-01 -2.000000e-01 
7.352522e-02 6.575725e-02 -3.149060e-01 2.000000e-01 
4.787414e-02 4.780108e-02 -2.892131e-01 2.000000e-01 
7.348922e-02 1.102715e-01 -1.282589e-01 -2.000000e-01 
4.831756e-02 8.139427e-02 -2.708963e-02 -2.000000e-01 
7.634444e-02 9.248756e-02 4.205984e-02 -2.000000e-01 
6.520484e-02 1.500854e-01 -3.295239e-01 2.000000e-01 
7.153660e-02 1.182900e-01 -2.228432e-01 2.000000e-01 
4.299014e-02 1.413392e-01 -1.985247e-01 -2.000000e-01 
4.945083e-02 1.315335e-01 8.395362e-02 2.000000e-01 
5.751483e-02 1.396981e-01 1.690759e-01 2.000000e-01 
4.808943e-02 1.494555e-01 4.046507e-01 -2.000000e-01 
7.650614e-02 1.912064e-01 -4.951164e-01 -2.000000e-01 
6.803715e-02 1.703418e-01 -4.020493e-01 -2.000000e-01 
7.164640e-02 1.610302e-01 4.175481e-02 -2.000000e-01 
6.288306e-02 1.545136e-01 4.105714e-01 2.000000e-01 
5.496580e-02 2.286250e-01 -1.402147e-01 2.000000e-01 
4.178930e-02 2.205799e-01 5.171660e-02 2.000000e-01 
3.854343e-02 1.971781e-01 1.602420e-01 2.000000e-01 
4.290112e-02 1.985379e-01 3.071577e-01 -2.000000e-01 
7.260021e-02 2.423816e-01 2.557014e-01 2.000000e-01 
5.913177e-02 2.411588e-01 3.615713e-01 2.000000e-01 
5.654792e-02 2.996583e-01 3.822335e-01 -2.000000e-01 
4.185096e-02 3.392380e-01 -4.980848e-01 -2.000000e-01 
4.071012e-02 3.373923e-01 -2.985246e-01 2.000000e-01 
6.498007e-02 3.454946e-01 -2.260924e-01 2.000000e-01 
4.564831e-02 3.090148e-01 3.740292e-01 -2.000000e-01 
5.415052e-02 3.693036e-01 -2.449274e-01 2.000000e-01 
7.504148e-02 3.496384e-01 -2.386204e-01 2.000000e-01 
7.422965e-02 3.843921e-01 -1.939804e-01 2.000000e-01 
5.520088e-02 3.553367e-01 -1.446939e-01 -2.000000e-01 
6.898239e-02 3.494348e-01 -8.963267e-02 2.000000e-01 
4.480199e-02 3.783174e-01 1.391907e-01 -2.000000e-01 
5.397689e-02 3.854891e-01 -3.671339e-01 -2.000000e-01 
4.871743e-02 4.214270e-01 -2.596842e-01 -2.000000e-01 
6.828410e-02 3.866813e-01 -1.144607e-01 -2.000000e-01 
5.776527e-02 3.950826e-01 -1.118609e-02 2.000000e-01 
5.060613e-02 4.222387e-01 2.183288e-01 2.000000e-01 
4.965211e-02 3.883657e-01 3.558399e-01 -2.000000e-01 
3.925085e-02 4.346419e-01 1.643015e-01 -2.000000e-01 
7.355855e-02 4.630299e-01 3.551647e-01 2.000000e-01 
5.851169e-02 4.792483e-01 4.296100e-01 -2.000000e-01 
9.398021e-02 -4.862126e-01 -4.036985e-01 2.000000e-01 
9.282993e-02 -4.985000e-01 -2.740465e-01 -2.000000e-01 
9.999006e-02 -4.732116e-01 -2.155153e-01 2.000000e-01 
9.841094e-02 -4.797738e-01 -2.131075e-03 -2.000000e-01 
9.251981e-02 -4.888810e-01 2.670830e-02 -2.000000e-01 
8.250640e-02 -4.921397e-01 4.344240e-01 2.000000e-01 
8.402566e-02 -4.349336e-01 -1.145020e-01 2.000000e-01 
8.809414e-02 -4.521757e-01 -1.290829e-02 2.000000e-01 
9.669763e-02 -4.403935e-01 3.257040e-01 -2.000000e-01 
9.718285e-02 -4.116470e-01 -3.141078e-01 2.000000e-01 
1.115941e-01 -3.936005e-01 -1.859417e-01 2.000000e-01 
8.010258e-02 -4.032351e-01 -7.483813e-02 -2.000000e-01 
8.478148e-02 -3.594156e-01 -7.400293e-02 -2.000000e-01 
9.595177e-02 -3.386679e-01 -4.014765e-01 -2.000000e-01 
1.009804e-01 -3.398937e-01 -1.274345e-01 -2.000000e-01 
1.090620e-01 -3.298147e-01 -2.267796e-02 -2.000000e-01 
8.424971e-02 -2.746664e-01 -4.359443e-01 2.000000e-01 
1.080542e-01 -2.569593e-01 -3.690079e-01 2.000000e-01 
9.051504e-02 -2.608830e-01 2.142232e-01 -2.000000e-01 
1.000050e-01 -2.535560e-01 3.269993e-01 2.000000e-01 
1.046566e-01 -2.580964e-01 3.236376e-01 -2.000000e-01 
1.101627e-01 -1.992825e-01 -4.831850e-01 -2.000000e-01 
7.894406e-02 -2.240406e-01 -4.520175e-01 -2.000000e-01 
7.946296e-02 -2.096461e-01 -2.951333e-01 2.000000e-01 
7.727086e-02 -2.257107e-01 1.451043e-01 -2.000000e-01 
7.861032e-02 -1.844343e-01 -1.511318e-01 -2.000000e-01 
1.019706e-01 -1.540188e-01 3.078299e-01 2.000000e-01 
7.723869e-02 -1.762119e-01 3.608460e-01 -2.000000e-01 
1.106531e-01 -1.727167e-01 4.054001e-01 2.000000e-01 
9.085437e-02 -1.339010e-01 -3.580147e-01 2.000000e-01 
8.105774e-02 -1.232402e-01 -2.166282e-01 2.000000e-01 
1.028987e-01 -1.239488e-01 -1.736645e-01 2.000000e-01 
1.127483e-01 -1.123617e-01 -4.803543e-01 2.000000e-01 
8.344063e-02 -8.862696e-02 1.226426e-01 -2.000000e-01 
8.580804e-02 -1.002229e-01 1.841292e-01 -2.000000e-01 
9.506533e-02 -1.090560e-01 4.978257e-01 2.000000e-01 
8.746708e-02 -6.594328e-02 -4.501882e-01 2.000000e-01 
1.118201e-01 -5.553197e-02 -2.411361e-01 -2.000000e-01 
1.087218e-01 -6.605804e-02 3.265880e-01 2.000000e-01 
1.001247e-01 -5.627607e-02 3.292365e-01 -2.000000e-01 
8.433057e-02 -5.812040e-02 4.959020e-01 -2.000000e-01 
1.071915e-01 -2.034644e-02 -1.369592e-02 2.000000e-01 
8.820066e-02 -2.219307e-02 4.691029e-03 -2.000000e-01 
1.051972e-01 2.669753e-02 6.953811e-02 2.000000e-01 
7.809789e-02 1.044286e-02 2.794546e-01 -2.000000e-01 
1.078626e-01 2.760537e-02 3.977472e-01 2.000000e-01 
7.784229e-02 6.626602e-02 -4.562177e-01 2.000000e-01 
1.047522e-01 5.661998e-02 -7.134462e-02 2.000000e-01 
8.856239e-02 8.153660e-02 -3.006767e-01 2.000000e-01 
8.424827e-02 1.093918e-01 -2.873562e-01 -2.000000e-01 
1.114495e-01 1.042503e-01 1.628930e-01 2.000000e-01 
1.096619e-01 8.653145e-02 3.478420e-01 -2.000000e-01 
1.140492e-01 1.474435e-01 -1.308375e-01 2.000000e-01 
9.774576e-02 1.300397e-01 -1.152147e-01 -2.000000e-01 
9.648859e-02 1.516505e-01 1.042513e-01 -2.000000e-01 
8.872614e-02 1.438540e-01 1.358815e-01 -2.000000e-01 
1.079634e-01 1.731359e-01 -3.658205e-01 -2.000000e-01 
1.140109e-01 1.809394e-01 -2.792806e-01 -2.000000e-01 
1.004756e-01 1.553616e-01 -4.055996e-02 2.000000e-01 
1.084323e-01 1.766541e-01 -4.492571e-02 -2.000000e-01 
8.486707e-02 1.877986e-01 4.807488e-02 2.000000e-01 
7.932528e-02 1.749489e-01 1.553678e-01 -2.000000e-01 
8.390124e-02 1.896678e-01 1.849630e-01 -2.000000e-01 
1.149169e-01 1.762316e-01 3.987591e-01 -2.000000e-01 
9.080032e-02 2.149754e-01 -3.696604e-01 2.000000e-01 
7.696450e-02 2.292778e-01 -2.400846e-01 2.000000e-01 
1.033692e-01 2.303693e-01 -1.123548e-01 2.000000e-01 
9.827480e-02 2.097379e-01 1.526589e-01 2.000000e-01 
9.730246e-02 2.194345e-01 1.926955e-01 2.000000e-01 
8.655654e-02 2.225665e-01 3.926101e-01 -2.000000e-01 
8.541454e-02 2.266283e-01 4.515044e-01 -2.000000e-01 
1.046905e-01 2.614286e-01 -1.753026e-01 -2.000000e-01 
7.807206e-02 3.024337e-01 -4.651719e-01 2.000000e-01 
8.702583e-02 2.973557e-01 1.094743e-01 2.000000e-01 
1.121119e-01 3.151666e-01 -3.182919e-01 2.000000e-01 
8.469725e-02 3.083036e-01 -2.765815e-01 -2.000000e-01 
8.474287e-02 3.418450e-01 2.597478e-02 2.000000e-01 
9.632614e-02 3.332084e-01 4.385180e-01 2.000000e-01 
9.378826e-02 3.516311e-01 4.403743e-01 2.000000e-01 
1.062168e-01 3.820655e-01 4.922925e-01 -2.000000e-01 
8.567094e-02 3.882321e-01 -3.527387e-01 -2.000000e-01 
9.028700e-02 4.027551e-01 -8.495655e-02 -2.000000e-01 
9.825087e-02 3.989056e-01 3.113318e-03 2.000000e-01 
7.753630e-02 4.246200e-01 -3.752739e-01 -2.000000e-01 
9.385635e-02 4.584155e-01 1.475253e-01 2.000000e-01 
1.508823e-01 -4.572492e-01 -4.829832e-01 -2.000000e-01 
1.389335e-01 -4.566210e-01 -3.446955e-01 2.000000e-01 
1.363581e-01 -4.535316e-01 -3.401725e-01 -2.000000e-01 
1.342861e-01 -4.595795e-01 -3.037146e-01 2.000000e-01 
1.170579e-01 -4.267650e-01 -7.709603e-02 -2.000000e-01 
1.445045e-01 -3.867535e-01 -3.465786e-01 2.000000e-01 
1.389490e-01 -4.194241e-01 1.457161e-01 2.000000e-01 
1.503350e-01 -3.980375e-01 1.812551e-01 2.000000e-01 
1.534717e-01 -3.646073e-01 -2.008033e-01 -2.000000e-01 
1.210818e-01 -3.788375e-01 4.962480e-02 -2.000000e-01 
1.492727e-01 -3.455103e-01 -1.832514e-01 -2.000000e-01 
1.284659e-01 -3.433022e-01 1.377848e-01 -2.000000e-01 
1.403494e-01 -3.168272e-01 2.914199e-01 -2.000000e-01 
1.438054e-01 -2.795643e-01 -4.324253e-01 -2.000000e-01 
1.472256e-01 -2.846400e-01 4.074377e-01 2.000000e-01 
1.291394e-01 -2.955101e-01 4.921826e-01 2.000000e-01 
1.239670e-01 -2.548055e-01 -2.351004e-01 2.000000e-01 
1.375754e-01 -2.408596e-01 -1.747120e-02 2.000000e-01 
1.235307e-01 -2.582026e-01 9.743937e-02 -2.000000e-01 
1.418835e-01 -2.195895e-01 -2.205504e-01 -2.000000e-01 
1.492667e-01 -2.305962e-01 3.534761e-01 -2.000000e-01 
1.327996e-01 -1.848024e-01 -4.665779e-01 -2.000000e-01 
1.240344e-01 -1.655445e-01 -3.994325e-01 -2.000000e-01 
1.346107e-01 -1.662726e-01 2.456966e-01 2.000000e-01 
1.318632e-01 -1.673478e-01 2.738974e-01 -2.000000e-01 
1.499464e-01 -1.484996e-01 -2.462546e-01 -2.000000e-01 
1.391883e-01 -1.423267e-01 -6.904042e-02 -2.000000e-01 
1.336749e-01 -1.507216e-01 1.714477e-01 2.000000e-01 
1.162110e-01 -1.095825e-01 7.751276e-02 -2.000000e-01 
1.250504e-01 -1.113055e-01 1.203599e-01 -2.000000e-01 
1.368912e-01 -1.085805e-02 -4.957611e-01 2.000000e-01 
1.363091e-01 -3.574093e-02 1.313903e-01 -2.000000e-01 
1.196170e-01 -2.638100e-03 1.595423e-01 2.000000e-01 
1.237138e-01 -2.760588e-02 2.058842e-01 -2.000000e-01 
1.484583e-01 -2.798659e-02 4.885579e-01 2.000000e-01 
1.350033e-01 3.072523e-02 -1.235119e-01 2.000000e-01 
1.500317e-01 3.113959e-02 -1.286849e-01 2.000000e-01 
1.265481e-01 3.314062e-02 -8.911815e-02 2.000000e-01 
1.461542e-01 2.568924e-02 3.812841e-01 2.000000e-01 
1.402448e-01 7.510747e-02 -3.542961e-01 -2.000000e-01 
1.447818e-01 4.282295e-02 2.801147e-01 2.000000e-01 
1.343937e-01 8.202122e-02 1.693329e-01 -2.000000e-01 
1.293533e-01 1.173789e-01 3.018760e-01 2.000000e-01 
1.344627e-01 1.831301e-01 -2.373421e-01 -2.000000e-01 
1.373631e-01 1.832398e-01 5.009861e-02 2.000000e-01 
1.298268e-01 1.630963e-01 2.185392e-01 2.000000e-01 
1.155515e-01 1.982010e-01 -2.865724e-01 2.000000e-01 
1.457652e-01 2.059275e-01 -2.242462e-01 -2.000000e-01 
1.343393e-01 1.975888e-01 4.188205e-01 -2.000000e-01 
1.310550e-01 2.010111e-01 4.877176e-01 -2.000000e-01 
1.494202e-01 2.591490e-01 -4.494510e-01 2.000000e-01 
1.287965e-01 2.399136e-01 -1.175241e-01 -2.000000e-01 
1.434759e-01 2.532714e-01 1.639658e-01 2.000000e-01 
1.339751e-01 2.712367e-01 -1.020816e-01 2.000000e-01 
1.298827e-01 3.062099e-01 1.062761e-01 2.000000e-01 
1.373056e-01 3.195458e-01 4.316828e-01 -2.000000e-01 
1.477513e-01 3.487433e-01 -4.989696e-01 2.000000e-01 
1.228422e-01 3.775175e-01 7.131253e-02 2.000000e-01 
1.301261e-01 3.790483e-01 2.115719e-01 -2.000000e-01 
1.355126e-01 3.563178e-01 3.676656e-01 2.000000e-01 
1.291352e-01 3.608573e-01 3.754492e-01 2.000000e-01 
1.520690e-01 3.770461e-01 3.652655e-01 2.000000e-01 
1.522698e-01 3.870604e-01 -2.670238e-01 2.000000e-01 
1.285691e-01 4.565815e-01 -1.392949e-01 2.000000e-01 
1.245034e-01 4.231884e-01 2.006241e-01 -2.000000e-01 
1.440936e-01 4.740056e-01 -4.608678e-01 -2.000000e-01 
1.245631e-01 4.754762e-01 -3.652357e-01 2.000000e-01 
1.510910e-01 4.747594e-01 2.318491e-01 -2.000000e-01 
1.294315e-01 4.924629e-01 4.162465e-01 -2.000000e-01 
1.785796e-01 -4.778551e-01 -3.508108e-01 2.000000e-01 
1.713756e-01 -4.670641e-01 -2.454900e-01 -2.000000e-01 
1.893518e-01 -4.733249e-01 -1.331412e-01 -2.000000e-01 
1.659837e-01 -4.854712e-01 -5.414777e-02 -2.000000e-01 
1.812677e-01 -4.692724e-01 3.824611e-01 -2.000000e-01 
1.702183e-01 -4.116250e-01 1.827171e-01 -2.000000e-01 
1.885763e-01 -3.889884e-01 2.216963e-01 -2.000000e-01 
1.834262e-01 -4.203280e-01 3.676836e-01 2.000000e-01 
1.588163e-01 -3.637631e-01 -3.886844e-01 2.000000e-01 
1.805386e-01 -3.781177e-01 -1.492005e-01 2.000000e-01 
1.672363e-01 -3.385458e-01 3.858606e-01 2.000000e-01 
1.630374e-01 -2.832609e-01 7.216840e-02 2.000000e-01 
1.850647e-01 -2.893706e-01 9.766900e-02 -2.000000e-01 
1.903363e-01 -2.867420e-01 2.454918e-01 -2.000000e-01 
1.872377e-01 -2.996973e-01 3.683038e-01 -2.000000e-01 
1.637001e-01 -2.432817e-01 -4.525926e-01 2.000000e-01 
1.776189e-01 -2.645387e-01 -2.085408e-01 2.000000e-01 
1.735464e-01 -2.411901e-01 -9.693825e-02 -2.000000e-01 
1.841213e-01 -2.526067e-01 1.503473e-01 2.000000e-01 
1.885034e-01 -1.924487e-01 5.343181e-02 2.000000e-01 
1.786670e-01 -2.039246e-01 4.204030e-01 2.000000e-01 
1.830241e-01 -2.053409e-01 4.106943e-01 -2.000000e-01 
1.719667e-01 -1.691815e-01 -4.688681e-01 2.000000e-01 
1.864902e-01 -1.895806e-01 -3.794376e-01 2.000000e-01 
1.648362e-01 -1.769102e-01 -6.959570e-02 2.000000e-01 
1.842138e-01 -1.888422e-01 7.656687e-02 -2.000000e-01 
1.811574e-01 -1.716656e-01 2.273853e-01 -2.000000e-01 
1.853896e-01 -1.306500e-01 -1.569366e-01 -2.000000e-01 
1.906913e-01 -1.305171e-01 5.998174e-02 -2.000000e-01 
1.920026e-01 -1.092117e-01 -1.322581e-01 2.000000e-01 
1.642885e-01 -1.112499e-01 1.525800e-01 -2.000000e-01 
1.576523e-01 -9.346836e-02 1.632163e-01 -2.000000e-01 
1.663977e-01 -5.734715e-02 -1.221516e-01 2.000000e-01 
1.690908e-01 -4.011218e-02 8.814896e-04 2.000000e-01 
1.756564e-01 -7.238873e-02 4.383963e-01 -2.000000e-01 
1.796951e-01 -4.108692e-03 1.069446e-01 -2.000000e-01 
1.770683e-01 3.251820e-02 -4.206076e-02 -2.000000e-01 
1.657707e-01 2.871861e-02 -3.851721e-02 -2.000000e-01 
1.630327e-01 8.574567e-03 3.812428e-01 2.000000e-01 
1.668317e-01 4.051125e-02 -4.243331e-01 2.000000e-01 
1.742825e-01 4.847306e-02 -4.106759e-01 -2.000000e-01 
1.867485e-01 4.609076e-02 -3.230385e-01 2.000000e-01 
1.782650e-01 5.597618e-02 6.695612e-03 2.000000e-01 
1.728468e-01 5.235525e-02 5.539457e-02 2.000000e-01 
1.721771e-01 5.533158e-02 3.969441e-01 2.000000e-01 
1.907455e-01 1.385029e-01 -6.443726e-03 -2.000000e-01 
1.863327e-01 1.214612e-01 2.520902e-01 2.000000e-01 
1.552479e-01 1.804875e-01 -4.228967e-01 2.000000e-01 
1.734710e-01 1.674453e-01 -4.123619e-01 -2.000000e-01 
1.572962e-01 1.664893e-01 -3.675733e-01 2.000000e-01 
1.727741e-01 1.902186e-01 -2.920112e-01 2.000000e-01 
1.876144e-01 2.294993e-01 -2.006277e-01 2.000000e-01 
1.849143e-01 2.284640e-01 -1.673161e-01 -2.000000e-01 
1.772550e-01 1.939839e-01 2.049553e-01 2.000000e-01 
1.733034e-01 2.287227e-01 4.709219e-01 2.000000e-01 
1.865110e-01 2.598340e-01 -4.147056e-01 -2.000000e-01 
1.652845e-01 2.663624e-01 5.734501e-02 2.000000e-01 
1.691720e-01 2.497906e-01 4.805742e-01 2.000000e-01 
1.862569e-01 2.521480e-01 4.649818e-01 -2.000000e-01 
1.545589e-01 2.902230e-01 -4.991475e-01 -2.000000e-01 
1.785199e-01 2.845221e-01 -4.229649e-01 2.000000e-01 
1.862385e-01 3.216702e-01 -1.256272e-01 2.000000e-01 
1.625853e-01 3.552910e-01 -2.816650e-01 -2.000000e-01 
1.550567e-01 3.659425e-01 -6.173952e-02 -2.000000e-01 
1.803926e-01 3.723187e-01 1.233950e-01 2.000000e-01 
1.849017e-01 3.882268e-01 -4.923439e-01 -2.000000e-01 
1.696612e-01 4.086099e-01 4.068483e-03 2.000000e-01 
1.729492e-01 4.186592e-01 5.337532e-02 2.000000e-01 
1.849586e-01 4.104959e-01 2.340057e-01 -2.000000e-01 
1.754069e-01 3.855765e-01 4.614694e-01 2.000000e-01 
1.705978e-01 4.554996e-01 -4.296327e-01 -2.000000e-01 
1.736005e-01 4.328689e-01 -3.549850e-01 -2.000000e-01 
1.660937e-01 4.556983e-01 -1.229014e-01 -2.000000e-01 
1.789383e-01 4.453354e-01 -9.691543e-02 2.000000e-01 
1.825661e-01 4.578231e-01 3.216847e-01 -2.000000e-01 
2.017544e-01 -4.651336e-01 -2.082659e-01 -2.000000e-01 
2.189155e-01 -4.866811e-01 3.957619e-01 -2.000000e-01 
2.100042e-01 -4.630789e-01 4.360297e-01 -2.000000e-01 
2.128289e-01 -4.437624e-01 -3.518856e-01 2.000000e-01 
2.021209e-01 -4.597642e-01 4.851230e-01 -2.000000e-01 
2.234379e-01 -4.043729e-01 -3.653456e-01 -2.000000e-01 
2.221441e-01 -4.029320e-01 -3.051545e-01 2.000000e-01 
2.132575e-01 -3.654416e-01 -3.008636e-01 -2.000000e-01 
1.968989e-01 -3.566273e-01 -2.496325e-01 2.000000e-01 
2.201809e-01 -3.509764e-01 -2.460136e-01 -2.000000e-01 
1.949402e-01 -3.672413e-01 -2.244215e-01 2.000000e-01 
1.923525e-01 -3.165499e-01 -2.345516e-01 2.000000e-01 
2.297284e-01 -3.262084e-01 6.848092e-02 2.000000e-01 
2.045529e-01 -3.360786e-01 4.206879e-01 -2.000000e-01 
2.081477e-01 -3.086606e-01 4.534429e-01 2.000000e-01 
2.277466e-01 -3.178302e-01 4.920725e-01 2.000000e-01 
2.244350e-01 -3.043836e-01 -4.451531e-01 -2.000000e-01 
1.957433e-01 -2.808406e-01 -2.495436e-01 2.000000e-01 
1.953547e-01 -2.833915e-01 -2.480032e-01 -2.000000e-01 
2.000758e-01 -2.885625e-01 -1.056249e-01 -2.000000e-01 
2.284073e-01 -2.724919e-01 3.334017e-02 -2.000000e-01 
2.062286e-01 -2.761389e-01 4.114407e-01 -2.000000e-01 
2.284799e-01 -2.427907e-01 -1.209605e-01 2.000000e-01 
2.008784e-01 -2.506754e-01 1.954632e-01 2.000000e-01 
2.192498e-01 -2.041329e-01 -4.371412e-01 2.000000e-01 
2.120699e-01 -2.049391e-01 -2.299924e-01 -2.000000e-01 
2.009763e-01 -1.973925e-01 -2.908942e-02 2.000000e-01 
2.078336e-01 -1.949003e-01 1.344166e-02 2.000000e-01 
2.183982e-01 -2.094261e-01 3.685931e-01 -2.000000e-01 
2.272086e-01 -1.906553e-01 -3.460491e-01 2.000000e-01 
1.942466e-01 -1.622321e-01 -2.138874e-01 -2.000000e-01 
2.292914e-01 -1.651335e-01 -7.150592e-02 -2.000000e-01 
1.970390e-01 -1.730769e-01 1.261672e-01 -2.000000e-01 
2.257639e-01 -1.196706e-01 -4.804396e-01 -2.000000e-01 
2.069512e-01 -1.193713e-01 -2.946883e-01 2.000000e-01 
1.924694e-01 -1.019916e-01 -3.321032e-01 -2.000000e-01 
2.132111e-01 -1.136175e-01 6.808402e-02 -2.000000e-01 
1.981278e-01 -6.689512e-02 1.578749e-01 -2.000000e-01 
2.078653e-01 -5.703062e-02 2.479204e-01 2.000000e-01 
2.232818e-01 -3.532182e-02 1.869003e-01 -2.000000e-01 
2.173303e-01 1.663476e-02 2.366921e-01 -2.000000e-01 
2.131277e-01 5.584700e-02 -4.387858e-01 2.000000e-01 
2.202294e-01 3.994418e-02 -2.613620e-01 2.000000e-01 
2.257262e-01 7.451215e-02 -3.660491e-02 -2.000000e-01 
1.981089e-01 5.674549e-02 6.021957e-02 -2.000000e-01 
2.258878e-01 5.256487e-02 9.140037e-02 -2.000000e-01 
2.171131e-01 4.654249e-02 1.183653e-01 2.000000e-01 
1.926694e-01 4.904287e-02 4.058082e-01 2.000000e-01 
2.062733e-01 1.095827e-01 -1.955233e-01 2.000000e-01 
1.973421e-01 1.104194e-01 -1.817649e-01 2.000000e-01 
2.282104e-01 8.977870e-02 7.631671e-02 2.000000e-01 
2.245466e-01 8.820459e-02 3.702048e-01 2.000000e-01 
2.106662e-01 1.485635e-01 -4.852369e-01 -2.000000e-01 
2.212534e-01 1.176933e-01 1.021418e-01 2.000000e-01 
2.265928e-01 1.826666e-01 -4.356703e-01 -2.000000e-01 
1.992717e-01 1.539223e-01 1.594262e-01 -2.000000e-01 
2.283805e-01 1.582738e-01 3.905975e-01 -2.000000e-01 
2.276685e-01 2.102080e-01 -7.626382e-02 -2.000000e-01 
2.225744e-01 1.970336e-01 7.755432e-02 -2.000000e-01 
2.038724e-01 2.161364e-01 2.111718e-01 2.000000e-01 
1.994995e-01 2.614174e-01 -3.483780e-01 2.000000e-01 
2.108909e-01 2.687272e-01 -1.026107e-01 -2.000000e-01 
2.110421e-01 2.664400e-01 -4.581036e-02 2.000000e-01 
2.030910e-01 2.517294e-01 1.288489e-01 2.000000e-01 
2.189533e-01 2.474722e-01 1.244620e-01 -2.000000e-01 
2.077677e-01 2.455122e-01 2.157791e-01 -2.000000e-01 
1.988069e-01 2.464567e-01 3.480523e-01 -2.000000e-01 
1.988387e-01 2.821948e-01 -4.988005e-01 2.000000e-01 
2.212058e-01 2.772278e-01 -3.601088e-01 -2.000000e-01 
1.953975e-01 2.880668e-01 -1.278407e-01 -2.000000e-01 
2.278613e-01 2.986938e-01 3.738949e-01 -2.000000e-01 
1.935794e-01 3.389959e-01 -9.836716e-02 2.000000e-01 
2.080340e-01 3.217858e-01 -4.789078e-02 2.000000e-01 
2.136997e-01 3.358087e-01 -5.916661e-03 2.000000e-01 
1.993761e-01 3.305559e-01 3.288288e-01 -2.000000e-01 
2.048234e-01 3.176322e-01 3.482500e-01 -2.000000e-01 
1.939176e-01 3.220972e-01 4.279124e-01 -2.000000e-01 
2.222081e-01 3.788967e-01 -3.731553e-01 -2.000000e-01 
2.189453e-01 4.189743e-01 -4.522114e-01 -2.000000e-01 
1.935528e-01 4.171203e-01 -2.966899e-01 2.000000e-01 
2.000174e-01 4.082459e-01 -7.003834e-03 2.000000e-01 
2.282805e-01 3.859098e-01 1.042991e-01 -2.000000e-01 
2.291681e-01 3.886370e-01 1.644594e-01 2.000000e-01 
2.147327e-01 4.466816e-01 -1.115680e-02 -2.000000e-01 
1.978639e-01 4.706324e-01 4.984180e-01 2.000000e-01 
2.495799e-01 -4.872547e-01 -1.706684e-01 -2.000000e-01 
2.380358e-01 -4.714561e-01 -1.511351e-01 2.000000e-01 
2.450235e-01 -4.237942e-01 4.050038e-01 2.000000e-01 
2.459526e-01 -4.140145e-01 3.729060e-01 2.000000e-01 
2.563643e-01 -3.637201e-01 -1.861188e-01 2.000000e-01 
2.448647e-01 -3.488381e-01 -1.052776e-02 2.000000e-01 
2.516497e-01 -3.725474e-01 1.259359e-01 -2.000000e-01 
2.502169e-01 -3.755462e-01 1.548649e-01 2.000000e-01 
2.513859e-01 -2.743744e-01 -2.428263e-01 -2.000000e-01 
2.528022e-01 -2.162604e-01 -9.821432e-02 2.000000e-01 
2.310786e-01 -1.956858e-01 3.439271e-01 -2.000000e-01 
2.378640e-01 -1.791128e-01 -3.053943e-01 -2.000000e-01 
2.433761e-01 -1.696196e-01 7.078938e-02 2.000000e-01 
2.437648e-01 -1.444242e-01 -2.278072e-01 -2.000000e-01 
2.683949e-01 -1.252935e-01 1.973811e-01 -2.000000e-01 
2.555261e-01 -1.425365e-01 4.402140e-01 -2.000000e-01 
2.683365e-01 -1.149233e-01 -2.206544e-01 -2.000000e-01 
2.535348e-01 -1.140448e-01 -1.804345e-01 -2.000000e-01 
2.575324e-01 -7.994343e-02 1.205119e-01 2.000000e-01 
2.625523e-01 -9.884662e-02 2.671055e-01 -2.000000e-01 
2.327497e-01 -8.903420e-02 3.876260e-01 2.000000e-01 
2.512859e-01 -4.908833e-02 4.956734e-02 -2.000000e-01 
2.498262e-01 -6.412644e-02 1.009790e-01 2.000000e-01 
2.328545e-01 1.774599e-02 -4.634552e-01 2.000000e-01 
2.457918e-01 2.334949e-02 -2.183305e-01 2.000000e-01 
